ply
format ascii 1.0
element vertex 284
property float x
property float y
property float z
property uchar red
property uchar green
property uchar blue
end_header
2687.16672641 2605.81465647 2403.57270388 255 255 0
2606.55468716 2523.06872885 2546.29016463 255 255 0
2492.61715949 2699.73471116 2489.59765159 255 255 0
2492.37680258 2703.16158662 2486.77803877 255 255 0
2365.54060523 2668.94872166 2642.80852628 255 255 0
2453.09549304 2725.79269597 2502.24638713 255 255 0
2461.26172217 2718.33447627 2501.48442606 255 255 0
2488.80222295 2700.26711251 2492.58390212 255 255 0
2507.22136482 2534.46178492 2637.36970044 255 255 0
2305.35499522 2616.79791254 2760.91732686 255 255 0
2512.18992383 2688.64606014 2481.72456902 255 255 0
2446.04695115 2733.79124433 2501.51799629 255 255 0
2464.06685651 2567.78661028 2647.30097177 255 255 0
2745.8210686 2435.26243761 2495.37932889 255 255 0
2440.435531 2580.63688359 2658.44260468 255 255 0
2757.83669948 2377.81123833 2537.95408407 255 255 0
2095.13270348 2780.86603312 2804.97769898 255 255 0
2621.42742629 2415.8754639 2642.94299356 255 255 0
2168.43643619 2751.26719766 2760.07660766 255 255 0
2789.17424879 2338.66686498 2544.96329454 255 255 0
2267.81272501 2667.96381745 2745.36729304 255 255 0
2916.65530514 2309.37534651 2455.07363223 255 255 0
2656.53407836 2630.43475786 2408.97374204 255 255 0
2678.66232205 2385.39740388 2613.4956922 255 255 0
2526.04715512 2672.08131874 2483.87022959 255 255 0
2234.96115386 2668.5653981 2778.63139533 255 255 0
2686.3038442 2380.51651534 2610.42302843 255 255 0
2648.93622688 2411.16017165 2618.03468234 255 255 0
2698.01228064 2449.21666066 2527.86364456 255 255 0
2428.58923103 2744.03098343 2508.22175109 255 255 0
2924.71838515 2224.62757072 2522.47059465 255 255 0
2894.19099764 2336.39346195 2450.79023882 255 255 0
2945.26712211 2275.41133088 2460.41657352 255 255 0
2870.80542811 2350.65461622 2458.33381569 255 255 0
2761.1737675 2419.71641997 2495.30404952 255 255 0
2900.80544433 2293.36005396 2482.40456388 255 255 0
2418.66085687 2642.64203029 2615.55915411 255 255 0
1976.50220725 2992.98460531 2707.28517835 255 255 0
2737.20619107 2356.82714123 2580.55883038 255 255 0
2943.66545379 2261.86022476 2473.28560297 255 255 0
2895.29946306 2337.83461343 2448.66766808 255 255 0
2410.56195349 2767.87229993 2503.32295273 255 255 0
2921.53327482 2308.1737202 2452.10277795 255 255 0
2224.31048989 2884.43838636 2568.70662673 255 255 0
2237.38740532 2707.09961946 2735.3486366 255 255 0
2653.27168804 2388.79450851 2637.66427979 255 255 0
2742.30019929 2334.81108946 2598.40818705 255 255 0
2582.27126099 2422.89423132 2678.01277849 255 255 0
2802.39961496 2312.40446929 2557.67101591 255 255 0
2720.97506192 2416.12668592 2537.24891416 255 255 0
2950.65471438 2236.78798465 2489.07167903 255 255 0
2868.92120258 2332.52403975 2475.8304528 255 255 0
2686.71698001 2443.49751533 2544.61287286 255 255 0
2527.27926381 2668.70162074 2485.75921698 255 255 0
2945.72258989 2279.83899463 2456.32810404 255 255 0
2708.78489841 2491.07838511 2478.983319 255 255 0
2475.87031819 2382.26283971 2834.73179966 255 255 0
2185.98661734 2710.17006054 2785.22530842 255 255 0
2497.88224861 2526.86018087 2655.50172949 255 255 0
2503.76950579 2705.88935783 2474.09899473 255 255 0
2739.58550669 2429.46453603 2506.55749377 255 255 0
2465.55197015 2724.54396143 2492.05999227 255 255 0
2302.90821382 2640.13331336 2738.60975136 255 255 0
2724.89041586 2402.27569974 2546.95659458 255 255 0
2827.80386356 2401.67381894 2451.36127822 255 255 0
2664.10860515 2479.61224642 2531.80205011 255 255 0
2945.05478313 2238.04960381 2492.70619603 255 255 0
2802.12015189 2327.32251554 2543.1035626 255 255 0
2292.21354461 2734.76530285 2649.4364484 255 255 0
2948.72304505 2258.26067068 2472.18431597 255 255 0
2719.28609357 2443.17713876 2513.05322278 255 255 0
2499.08373251 2532.93820677 2647.65954637 255 255 0
2500.7757334 2692.66958716 2488.48681568 255 255 0
2225.29997936 2745.24793255 2707.47297655 255 255 0
2676.68760854 2492.35877527 2507.66295824 255 255 0
2906.08358277 2277.30803226 2491.93484863 255 255 0
2161.05899285 2758.55777385 2760.03523328 255 255 0
3069.57511417 2232.20134177 2409.99027803 255 255 0
2256.78962371 2635.58829753 2790.97774134 255 255 0
2230.00906805 2651.47510542 2801.68328926 255 255 0
2430.25930852 2735.19191053 2514.63025389 255 255 0
2917.93618423 2302.41414676 2459.9307412 255 255 0
2917.29509243 2258.97061166 2498.32145865 255 255 0
2722.26102173 2545.62794141 2421.07646414 255 255 0
2684.18288425 2458.31056239 2532.66055571 255 255 0
2929.50751141 2293.31868862 2458.11377116 255 255 0
2859.08412559 2229.6190557 2582.87188089 255 255 0
2235.52654141 2679.80490237 2766.18423806 255 255 0
2460.53727574 2508.11470314 2715.58847674 255 255 0
2576.85076799 2476.11185947 2625.80672397 255 255 0
2944.61670789 2268.50611871 2466.80867508 255 255 0
2946.69363795 2288.89641061 2448.07248916 255 255 0
2441.34337576 2735.04950916 2504.65361273 255 255 0
2456.32257963 2662.1760609 2558.13123667 255 255 0
2302.70716012 2647.66879311 2730.7858844 255 255 0
2164.1469054 2742.5207545 2773.73631777 255 255 0
2733.22609664 2399.85469277 2540.95412229 255 255 0
2733.44191522 2446.21931071 2496.89056017 255 255 0
2965.2713311 2235.01551742 2478.46507433 255 255 0
2555.6453229 2521.80535526 2599.67052608 255 255 0
2789.13694242 2424.64721501 2465.35219906 255 255 0
2852.46861318 2358.52055818 2467.41524217 255 255 0
2432.98973645 2631.2407247 2612.67467846 255 255 0
2497.49600692 2597.40067739 2581.5547636 255 255 0
2206.43826846 2896.70745356 2574.10041759 255 255 0
2248.84085881 2687.51965927 2744.24924287 255 255 0
2566.48204829 2464.53216368 2649.54418608 255 255 0
2279.24190489 2693.11615562 2706.76435861 255 255 0
3097.80499634 2183.93896974 2427.85275129 255 255 0
2733.38326008 2340.60370058 2601.94333498 255 255 0
2309.02877161 2626.32046364 2746.98415333 255 255 0
2515.02204079 2523.90048735 2640.43634799 255 255 0
2749.20849846 2330.34805401 2595.63705639 255 255 0
2498.37614529 2712.1473786 2473.45619414 255 255 0
2360.92589122 2479.13211478 2849.34423005 255 255 0
2755.14471648 2395.65416974 2523.40944671 255 255 0
2762.94910086 2393.15568604 2518.24024298 255 255 0
2960.45084173 2201.21483796 2511.75536247 255 255 0
2560.37800883 2482.54030701 2636.56401463 255 255 0
3105.01736235 2192.94149018 2418.28625233 255 255 0
2938.22048585 2255.39618388 2483.42996311 255 255 0
2950.70086002 2266.92523204 2463.18728795 255 255 0
2786.64824323 2379.08271489 2508.83298407 255 255 0
2243.71210967 2872.20953041 2561.88594384 255 255 0
2472.3282276 2531.88660355 2677.2701363 255 255 0
2388.52038884 2536.12773211 2760.88383051 255 255 0
2494.70647895 2627.32906813 2554.54671461 255 255 0
2911.41876297 2276.05977923 2488.37566218 255 255 0
2913.48430599 2304.06722898 2462.23205091 255 255 0
2235.68426654 2718.64081409 2724.87719596 255 255 0
2608.75496075 2565.37829579 2504.088088 255 255 0
2186.98307446 2757.029431 2734.75733206 255 255 0
3115.05790601 2173.36456719 2426.50213549 255 255 0
2911.97903463 2267.80877349 2495.16232255 255 255 0
2366.47657026 2532.19587518 2787.83957201 255 255 0
2880.96259315 2246.55176202 2543.36404547 255 255 0
2617.06283728 2356.57760307 2713.11316596 255 255 0
2801.39116432 2302.42820917 2568.87893474 255 255 0
2922.27383871 2276.3953444 2478.73394605 255 255 0
2357.02858691 2553.92915859 2774.46375652 255 255 0
2436.79637332 2591.67276847 2650.45439063 255 255 0
2748.80074323 2341.60414139 2584.13254448 255 255 0
2514.19393064 2514.53462371 2651.4343848 255 255 0
2634.51178713 2505.55367087 2535.77261506 255 255 0
2703.47519725 2369.82020381 2603.20914604 255 255 0
2271.42218979 2618.25721694 2794.24589692 255 255 0
3105.31995646 2177.86297276 2428.18878909 255 255 0
2227.969678 2672.12722978 2782.06705469 255 255 0
2749.15176731 2404.92507277 2520.40774797 255 255 0
2959.08166877 2233.64865797 2484.7316342 255 255 0
2919.21422485 2302.82246641 2458.51993949 255 255 0
2190.4781082 2740.68184693 2748.41049438 255 255 0
2579.15091893 2439.85914807 2662.78237219 255 255 0
2472.70344519 2533.72226576 2674.88066288 255 255 0
2669.3394272 2379.84204453 2629.77812479 255 255 0
2971.18129186 2245.97196934 2464.43010266 255 255 0
3083.68592214 2210.82162808 2416.95706418 255 255 0
3015.32727194 2112.7939023 2542.50964544 255 255 0
2674.80225903 2587.19284391 2426.46890775 255 255 0
2430.63970867 2734.58842442 2514.84030894 255 255 0
2435.52172017 2728.76151198 2515.61005799 255 255 0
2867.77062445 2205.11483486 2599.25803294 255 255 0
2405.41693571 2621.20987393 2651.84155143 255 255 0
3111.82462348 2179.62497614 2423.88099435 255 255 0
2769.49294336 2390.91230026 2514.08431087 255 255 0
2828.52508937 2300.64534471 2542.79850177 255 255 0
2543.20902953 2523.16790805 2611.31605997 255 255 0
2865.46200495 2340.78623559 2471.59232004 255 255 0
2880.01183958 2329.5798432 2468.71820691 255 255 0
2959.43474689 2251.40046355 2469.26296197 255 255 0
2659.84704112 2378.44588031 2641.77545014 255 255 0
2312.68316804 2613.68486064 2756.65568909 255 255 0
3104.57830254 2210.71141425 2406.94734197 255 255 0
2454.88762086 2722.48734964 2503.56712047 255 255 0
2692.51747712 2309.80756424 2681.3996216 255 255 0
2724.87271473 2502.43578422 2454.35584874 255 255 0
2225.83951708 2719.77037464 2733.88534571 255 255 0
2435.46857128 2733.11503739 2511.74811344 255 255 0
2481.49199468 2484.7323967 2718.75468216 255 255 0
2188.07978211 2610.59766052 2886.25966932 255 255 0
2874.48341714 2033.29945107 2782.03872116 255 255 0
2653.19510409 2612.23038013 2424.27651386 255 255 0
2733.40324332 2431.08931306 2510.90616042 255 255 0
2279.98316769 2621.06025247 2782.51858074 255 255 0
2437.16126294 2738.8285446 2505.07009355 255 255 0
2935.664777 2372.72672769 2393.79989402 255 255 0
2481.59510351 2609.52768487 2585.35566071 255 255 0
2820.37585794 2402.44233602 2457.15507713 255 255 0
2704.69811879 2374.53680315 2596.82307509 255 255 0
2450.40352663 2725.47801211 2504.97112024 255 255 0
2238.95513171 2724.03339819 2715.76592104 255 255 0
2903.76767946 2315.77079529 2460.35538516 255 255 0
2211.84275998 2679.34017928 2791.0427068 255 255 0
2632.37236314 2417.75382119 2628.92846116 255 255 0
2159.36496463 2684.04046237 2839.71402423 255 255 0
2685.6322962 2378.21205245 2613.64852818 255 255 0
2740.88067337 2405.25417072 2528.1330442 255 255 0
2619.09001963 2387.32106245 2676.92986559 255 255 0
2695.01793466 2416.45944195 2563.2820345 255 255 0
2751.66709894 2434.19112325 2490.93888982 255 255 0
2243.65063538 2871.07322535 2562.98812959 255 255 0
3099.87202764 2203.10643928 2414.07169598 255 255 0
2433.86705644 2634.18343033 2608.72511627 255 255 0
2529.32519584 2528.25920538 2620.57300133 255 255 0
2888.84667421 2243.62923351 2538.46872951 255 255 0
2890.37676809 2310.3451177 2476.55880852 255 255 0
2903.05383244 2192.12439124 2574.84843963 255 255 0
2280.10464358 2682.30924684 2717.36232202 255 255 0
2258.40220559 2710.95182986 2709.46148247 255 255 0
3006.70730686 2126.28313491 2537.98396097 255 255 0
2502.76238142 2695.16928934 2484.48448658 255 255 0
2700.65668118 2360.66239875 2616.19740104 255 255 0
2517.9280249 2681.70860913 2482.68685434 255 255 0
2519.70513531 2571.97213135 2584.86241588 255 255 0
2380.61493765 2536.65581879 2768.51408248 255 255 0
2536.57045618 2462.74815777 2683.80564304 255 255 0
3034.8821296 2352.84449979 2352.11047661 255 255 0
3006.36095318 2123.89798411 2540.40560526 255 255 0
2263.79176484 2651.36661432 2767.12358712 255 255 0
2403.19958401 2535.8548003 2745.8986424 255 255 0
2721.49036582 2472.4034999 2484.14697837 255 255 0
2778.48722943 2365.48301665 2529.48480251 255 255 0
2226.30430839 2882.74838325 2568.3996896 255 255 0
2901.80703926 2245.0136005 2524.87656635 255 255 0
2168.50952099 2755.24272161 2755.80747456 255 255 0
2401.56894309 2473.52607069 2814.06604415 255 255 0
2922.22431042 2298.3080466 2459.87555156 255 255 0
2905.07493129 2326.53263626 2450.12614751 255 255 0
3086.4784225 2131.35240813 2472.35160775 255 255 0
3086.39600425 2131.15027389 2472.51567007 255 255 0
2742.21934632 2359.11355904 2572.83956793 255 255 0
2427.5177924 2504.53378218 2754.18050579 255 255 0
2236.03985485 2704.2889358 2739.72467149 255 255 0
2872.1803095 2354.15502623 2454.15091618 255 255 0
2008.07047146 2802.61012107 2872.78468798 255 255 0
2172.65400993 2767.6397614 2738.41853644 255 255 0
2265.9819114 2654.22473286 2761.8366312 255 255 0
2720.19396146 2457.99436307 2498.46830318 255 255 0
2900.16500395 2329.91266865 2451.32089662 255 255 0
2833.60984556 2382.24696732 2463.18947532 255 255 0
2966.16711695 2212.80611528 2496.80089527 255 255 0
2498.16261234 2594.88067402 2583.43925605 255 255 0
3018.20444977 2121.72453128 2532.21021157 255 255 0
2731.68560409 2384.13909116 2558.19923756 255 255 0
3117.77098782 2162.29529161 2432.59778294 255 255 0
2934.25627774 2250.14725697 2491.37526236 255 255 0
2595.71584576 2563.39180281 2518.18999395 255 255 0
2281.93869293 2705.96583015 2690.3224924 255 255 0
2363.31018739 2757.08901523 2556.7269968 255 255 0
2727.74077711 2370.56681254 2576.28055496 255 255 0
3091.28067606 2199.4969439 2420.67626277 255 255 0
3010.75231971 2207.9060661 2464.34657454 255 255 0
2752.56654504 2387.02461897 2534.22359266 255 255 0
3120.96041805 2148.40747467 2440.41905545 255 255 0
3034.55349971 2353.34893396 2351.94600443 255 255 0
2894.84592622 2342.79838443 2444.90113381 255 255 0
2702.90566221 2586.02297059 2406.0713618 255 255 0
2564.03465826 2577.35861474 2535.35789657 255 255 0
2932.2445343 2234.53943671 2506.84950176 255 255 0
2219.4696159 2701.33570572 2759.99897747 255 255 0
2673.6930149 2587.63672194 2427.00772724 255 255 0
1951.40703686 2945.65791355 2783.29142711 255 255 0
3048.19866229 2084.33191151 2539.78534382 255 255 0
2889.02772724 2256.21119697 2526.45263773 255 255 0
2410.07299045 2634.17192314 2633.27721423 255 255 0
2893.13583873 2330.26770376 2456.88230748 255 255 0
2949.07165506 2253.22162367 2476.21929017 255 255 0
2908.90549015 2312.07516494 2459.20480603 255 255 0
2671.85964146 2453.09147726 2550.0661193 255 255 0
2948.61825194 2243.36263698 2485.0930328 255 255 0
2666.17250306 2499.58198936 2510.90333867 255 255 0
2394.74849051 2523.20260606 2768.24996423 255 255 0
2602.10658704 2377.82607498 2706.01929085 255 255 0
2935.01700392 2298.24313281 2449.55463214 255 255 0
2924.39458349 2299.45454916 2457.10642986 255 255 0
2246.9569001 2705.90661238 2726.68944458 255 255 0
2470.83371285 2582.53335587 2624.48162566 255 255 0
2965.33932311 2220.09901194 2491.20919516 255 255 0
3045.65868864 2329.88857383 2360.15963089 255 255 0
2881.7174401 2333.16459425 2464.11156977 255 255 0
2906.23392388 2356.65343407 2425.15495296 255 255 0
2204.69704873 2781.36922983 2690.74371287 255 255 0
2723.04239663 2368.56048422 2583.3943626 255 255 0
2573.90627506 2296.95763367 2823.79471949 255 255 0
